# .PCD v0.7 - Point Cloud Data file format
VERSION 0.7
FIELDS x y z
SIZE 4 4 4
TYPE F F F
COUNT 1 1 1
WIDTH 1581
HEIGHT 1
VIEWPOINT 0 0 0 1 0 0 0
POINTS 1581
DATA ascii
6.592802 2.4215255 1.7014667
6.6006947 2.390991 1.701685
6.5386944 2.342761 1.7028012
6.5579691 2.3153119 1.7028687
6.5499763 2.2810709 1.7032847
6.545742 2.2478507 1.7036505
6.553443 2.2158692 1.7038786
6.5334034 2.1790481 1.7044413
6.5326996 2.1469049 1.7047561
6.5786781 2.1254721 1.7044801
6.6900291 2.0860887 1.7036883
6.8453112 2.0876005 1.7020476
6.9776001 2.0813913 1.7007191
7.176136 2.0900052 1.6985559
7.3239183 2.0867722 1.6970345
7.499218 2.0881705 1.6951797
7.706007 2.094722 1.692945
7.9090261 2.0991461 1.6907682
22.947001 -15.656866 1.6023812
23.187454 -15.922414 1.6004205
22.704294 -16.097918 1.6048696
22.519394 -16.097538 1.6065159
21.555401 -15.592415 1.6147895
21.4599 -15.644097 1.6156639
21.364925 -15.701698 1.6165329
21.643026 -15.999418 1.6142219
21.869469 -16.265909 1.612348
21.762152 -16.311367 1.6133085
-11.927361 15.271451 1.5317556
-11.867867 15.293612 1.5317762
-11.800682 15.296811 1.5321306
-11.694622 15.234487 1.5337172
-11.644132 15.264523 1.5335575
-11.601659 15.308177 1.5331399
-11.513983 15.280746 1.5340772
-11.457334 15.299795 1.5341166
-11.404642 15.325574 1.5340277
-11.341963 15.333807 1.5342648
-11.245152 15.287601 1.5355358
-11.163172 15.260343 1.5364274
-11.120382 15.302594 1.5360197
-11.060002 15.313222 1.5361991
-10.9118 15.289558 1.5374022
-10.855433 15.306439 1.5374563
-10.720148 15.297191 1.5383523
-10.658273 15.302768 1.5386069
-10.591929 15.305946 1.5389216
-10.526497 15.303912 1.5393105
-10.437403 15.25537 1.5405512
-10.406828 15.320436 1.5397007
-10.343437 15.321213 1.540029
-10.259538 15.287322 1.5410074
-10.19108 15.276787 1.541536
-10.145761 15.312597 1.5412143
-10.072199 15.290784 1.5419431
-9.9944572 15.266338 1.5427328
-9.9369431 15.276317 1.5428749
-9.9052486 15.340241 1.5420334
-9.8219776 15.295629 1.5431633
-9.7560329 15.286857 1.5436382
-9.6943045 15.293561 1.5438459
-9.6452999 15.320596 1.5436666
-9.5041761 15.279436 1.545023
-9.4372072 15.265706 1.5455723
-9.3904505 15.304065 1.5451953
-9.3381386 15.322794 1.5451547
-9.263402 15.290019 1.5460383
-9.2079992 15.300974 1.5461324
-9.1573019 15.322765 1.54603
-9.086237 15.296522 1.5467869
-9.0231724 15.288408 1.5472155
-8.9510021 15.257889 1.5480421
-5.8464737 11.701118 1.6183975
-5.7993002 11.680917 1.6188945
-5.7575507 11.688112 1.6189234
-5.7167983 11.690751 1.619022
-5.677084 11.697114 1.6190548
-5.6433749 11.726571 1.6186879
-5.5955925 11.709955 1.6191216
-5.554873 11.71203 1.6192241
-5.5122495 11.706196 1.6194612
-5.4309635 11.709625 1.619671
-5.3894234 11.707237 1.6198441
-5.3543205 11.731957 1.6195503
-5.3152409 11.749254 1.6193898
-5.2612877 11.691853 1.6205019
-5.2217159 11.696672 1.6205453
-5.1769757 11.677921 1.6209909
-5.1510267 11.744994 1.6199658
-5.099267 11.702935 1.6208136
-5.0498629 11.660233 1.6216636
-5.0112748 11.668252 1.6216447
-4.9710608 11.668304 1.6217607
-4.9347858 11.687831 1.6215429
-4.8899493 11.664072 1.6220623
-4.850821 11.679807 1.6219126
-4.8121586 11.687169 1.6218984
-4.7734776 11.694401 1.6218852
-4.7333355 11.693636 1.6220067
-4.6911922 11.693093 1.6221286
-4.6552467 11.715685 1.6218503
-4.614439 11.71057 1.6220416
-4.5730309 11.701368 1.6223007
-4.5323505 11.695972 1.6224939
-4.4949145 11.710171 1.6223531
-4.4566083 11.732476 1.622079
-4.4171638 11.734576 1.622141
-4.3741531 11.712814 1.6226058
-4.3342171 11.710683 1.6227366
-4.296031 11.720287 1.6226673
-4.2594647 11.741652 1.622398
-4.2049818 11.648272 1.624072
-4.1733174 11.705025 1.6232018
-4.1345859 11.710136 1.6232033
-4.0968046 11.739187 1.6228039
-4.0510921 11.688478 1.6237447
-4.0109801 11.681273 1.6239499
-3.97 11.665987 1.6242898
-3.9403999 11.749907 1.6229563
-3.9010725 11.750272 1.6230302
-3.8491359 11.6513 1.6247795
-3.8154995 11.703078 1.6239846
-3.7716062 11.655271 1.6248646
-3.7302403 11.651285 1.6250095
-3.6927876 11.666879 1.6248201
-3.6527481 11.654465 1.6251001
-3.6148741 11.665821 1.6249795
-3.5766006 11.673069 1.6249266
-3.5386009 11.684176 1.6248077
-3.4984183 11.667248 1.6251582
-3.459805 11.670124 1.625175
-3.4191492 11.673014 1.6251936
-3.3821023 11.699571 1.6248107
-3.3433824 11.702061 1.6248302
-3.3027711 11.672483 1.6253858
-3.263694 11.666723 1.6255407
-3.2257202 11.680803 1.6253623
-3.1867962 11.718826 1.6247847
-3.1461821 11.680717 1.6254773
-3.1073616 11.678428 1.6255691
-2.7633655 9.7240496 1.6585881
-2.7333198 9.8964634 1.6557448
-1.5268282 10.340234 1.6489371
-1.4904735 10.356461 1.648664
-1.4553288 10.360633 1.6485903
-1.4604621 10.015052 1.6543343
-1.4471309 9.8443718 1.6571677
-1.4128617 9.8402452 1.6572287
-1.5068791 8.82827 1.6740584
-1.4807612 8.8007555 1.6745079
-1.4506212 8.8048868 1.6744297
-1.4199853 8.8007793 1.6744871
-1.3897916 8.8047028 1.6744105
-1.35899 8.8124809 1.6742686
-1.3292789 8.812233 1.6742594
-1.2986183 8.807703 1.6743197
-1.2707103 8.7953939 1.6745094
-1.239785 8.8027515 1.6743706
-0.43416786 8.848546 1.6728244
-0.40783834 8.8296375 1.6730973
-0.37570071 8.833909 1.6729809
-0.340523 8.8496847 1.6726707
-0.31632209 8.8227549 1.6730752
6.6004534 3.8106666 1.705763
6.605545 3.7770846 1.7060778
6.5956736 3.737529 1.7065762
6.5707855 3.6921456 1.707257
6.5680132 3.6557951 1.7076619
6.5576534 3.6165826 1.7081574
6.5439253 3.5413561 1.7090548
6.7163 3.5720825 1.707325
6.5526667 3.4733272 1.7096893
6.5378094 3.4331508 1.7102263
6.5451746 3.3669114 1.7108471
6.5750141 3.3433163 1.710843
6.5784311 3.3101439 1.7111534
6.5521278 3.2647164 1.7118331
6.5854731 3.2422283 1.7117856
6.5658474 3.2012534 1.7123626
6.5649729 3.1669192 1.7127162
6.5563936 3.1300611 1.7131581
6.5545301 3.0600398 1.7138745
6.5417328 3.0221651 1.7143584
6.5630341 2.9954858 1.7144456
6.5499744 2.9577346 1.7149285
6.5443916 2.9225099 1.7153229
6.5463114 2.889751 1.7156291
6.578661 2.7980518 1.716254
6.5878019 2.7675622 1.7164732
6.5508003 2.7234857 1.7172116
6.5865803 2.7009056 1.7171278
6.6156931 2.4768579 1.7190155
6.5850782 2.436106 1.7196589
6.6007652 2.4075992 1.7197924
6.6047363 2.3760455 1.7200532
6.5659285 2.3337748 1.7207774
6.5816946 2.3036454 1.7209222
6.5658846 2.2674518 1.7213918
6.5693769 2.2360713 1.7216508
6.5688744 2.2037656 1.7219517
6.5643597 2.1705813 1.7222939
6.5636253 2.1383443 1.722594
6.582283 2.1105607 1.7226863
6.6900196 2.0685172 1.7221406
6.8922224 2.0798898 1.7202989
7.0672131 2.0841265 1.7187544
7.2345037 2.0855818 1.7173001
7.4058275 2.0867612 1.7158123
7.5498219 2.0812726 1.7146184
7.7370434 2.0834329 1.7129827
7.9557934 2.0905025 1.7110301
8.1750631 2.0942655 1.7091008
8.4255695 2.1043634 1.7068447
24.518637 -15.946586 1.6488212
24.620329 -16.128296 1.6484133
24.223272 -16.013294 1.6511521
24.289873 -16.174417 1.6509596
23.476833 -15.802906 1.6563023
23.513557 -15.950216 1.6562989
23.334436 -15.959131 1.6576372
23.250702 -16.026096 1.6583722
22.560881 -16.070513 1.6634982
22.490553 -16.143068 1.6641281
23.171654 -16.703028 1.660079
-10.727394 15.262206 1.5720046
-10.68243 15.299643 1.5716944
-10.601223 15.274579 1.5724158
-10.517406 15.23711 1.5733196
-10.470587 15.27035 1.5730715
-10.410887 15.278519 1.5732288
-10.358449 15.300731 1.5731566
-10.272745 15.263357 1.5740614
-10.215029 15.274364 1.5741658
-10.160876 15.292321 1.5741559
-10.008732 15.237742 1.5755882
-9.9573174 15.267074 1.575403
-9.8981142 15.273303 1.5755732
-9.8338051 15.268467 1.5759188
-9.7713242 15.266988 1.5762082
-9.7072287 15.26164 1.5765573
-9.6549835 15.281458 1.5765014
-9.5877113 15.26836 1.5769697
-9.5139875 15.240417 1.5776725
-9.459198 15.260767 1.5776153
-9.4102688 15.287043 1.5774488
-9.3434639 15.272919 1.5779239
-9.2848492 15.276834 1.5781095
-9.2236137 15.281686 1.5782911
-9.1714106 15.299851 1.5782466
-9.0878372 15.244235 1.5793697
-9.0280056 15.243515 1.5796199
-9.0226212 15.380232 1.5777068
-9.0159969 15.508587 1.5759157
-9.0358953 15.70368 1.5730729
-9.0169573 15.806431 1.5716901
-9.0362053 16.005705 1.5687877
-8.7467117 15.44089 1.5779266
-8.6720867 15.401615 1.5787712
-8.6108866 15.395544 1.5790911
-8.5569973 15.407896 1.5791197
-8.5002384 15.412581 1.5792669
-8.4422379 15.421824 1.5793523
-8.3883438 15.433581 1.579385
-8.3302593 15.433903 1.579595
-8.274991 15.441521 1.579689
-8.2115402 15.426383 1.5801364
-8.1536617 15.426053 1.5803506
-8.0971909 15.437768 1.5803862
-8.0314312 15.414375 1.5809556
-7.9737926 15.41338 1.5811743
-5.365324 11.709206 1.6429381
-5.3229494 11.702688 1.643149
-5.2672672 11.637536 1.6442486
-5.2258425 11.642831 1.6442828
-5.1890316 11.659245 1.6441414
-5.1512933 11.671636 1.6440603
-5.1042647 11.640886 1.6446314
-5.0628815 11.645603 1.6446695
-5.0251498 11.657581 1.6445911
-4.9857612 11.661603 1.6446321
-4.9463778 11.665488 1.6446741
-4.9046688 11.657471 1.6448946
-4.8683672 11.67679 1.6447014
-4.8284326 11.688523 1.6446267
-4.7897415 11.69581 1.6446131
-4.7474289 11.683297 1.6448967
-4.7073407 11.682442 1.6450036
-4.6721487 11.709022 1.6446962
-4.6320281 11.707909 1.6448047
-4.5845618 11.675453 1.6453881
-4.5452604 11.677984 1.6454393
-4.5104675 11.708019 1.6450764
-4.4696736 11.714575 1.6450697
-4.423522 11.673247 1.6457759
-4.3818812 11.659421 1.646068
-4.3444662 11.673139 1.6459459
-4.3110132 11.714441 1.6454096
-4.267179 11.684372 1.6459416
-4.2220879 11.658386 1.6464151
-4.1872525 11.691407 1.6460003
-4.1475115 11.688636 1.6461198
-4.1083179 11.705827 1.6459441
-4.0621471 11.651193 1.6468364
-4.0269575 11.683733 1.6464251
-3.986423 11.672472 1.646667
-3.9514408 11.708753 1.6461983
-3.9095905 11.685307 1.6466198
-3.8666286 11.649781 1.64722
-3.8268232 11.641946 1.6474061
-3.7870688 11.654074 1.6472973
-3.7473366 11.645966 1.6474851
-3.7117989 11.681522 1.647022
-3.6702485 11.65324 1.647508
-3.6316807 11.656687 1.6475208
-3.5934439 11.663989 1.6474751
-3.5540981 11.68329 1.6472535
-3.5135779 11.662426 1.6476245
-3.4749866 11.665353 1.6476409
-3.4366622 11.672141 1.647599
-3.3980391 11.674812 1.6476171
-3.3591456 11.673364 1.6476954
-3.3180068 11.667916 1.6478349
-3.2796214 11.674186 1.6477965
-3.2414236 11.684326 1.6477
-3.2027552 11.686349 1.6477226
-3.1612971 11.67236 1.6479841
-3.1224995 11.670121 1.6480678
-3.0845268 11.687736 1.6478566
-3.0457048 11.685243 1.6479419
-2.9679992 11.67587 1.6481746
-2.9295785 11.684984 1.6480854
-2.8889699 11.690021 1.6480576
-2.5387115 11.697083 1.6483095
-1.5749305 10.361569 1.6685309
-1.5384473 10.361866 1.6685321
-1.5046059 10.354273 1.668648
-1.4734358 10.322719 1.6691154
-1.4913629 9.8618908 1.6758938
-1.4598374 9.8340874 1.6763042
-0.48043227 8.8436527 1.6903875
-0.45596433 8.8171139 1.690751
-0.42142725 8.8250589 1.6906033
-0.39323711 8.8138695 1.6907387
-0.36014056 8.8219633 1.6905885
6.5557394 3.846031 1.7248178
6.537097 3.7653902 1.725734
6.549448 3.7350285 1.7259554
6.5468464 3.6986763 1.7263296
6.5552568 3.6668065 1.7265891
6.5473032 3.5218945 1.7280536
6.5738115 3.4971595 1.7281239
6.5777769 3.4638793 1.7284203
6.5441179 3.4167192 1.729091
6.578433 3.3929904 1.7290989
6.5782661 3.3584082 1.7294319
6.5629129 3.3184566 1.7299131
6.5549326 3.2813256 1.730319
6.5317163 3.2389748 1.7308723
6.5423183 3.208643 1.7310917
6.5376921 3.173064 1.7314588
6.5349216 3.0689261 1.7324581
6.5221634 3.0310762 1.7328959
6.5510979 3.0069592 1.7329328
6.5380859 2.9692075 1.7333696
6.5249243 2.9315801 1.7338055
6.5039816 2.8916738 1.7343125
6.4926844 2.8201721 1.735047
6.5286961 2.7980876 1.7350137
6.5301743 2.7654679 1.7353032
6.5085268 2.7260532 1.7358062
6.5097513 2.6935518 1.7360947
6.5646601 2.6766028 1.7358868
6.5272408 2.6330013 1.7365295
6.5285845 2.5989149 1.7368289
6.5409203 2.5696588 1.7370112
6.5338755 2.5350637 1.7373692
6.5498676 2.5068099 1.7375166
6.5464516 2.4733202 1.7378389
6.5506487 2.441915 1.7380911
6.5664692 2.3810947 1.7385262
6.5668764 2.3470881 1.7388242
6.5512362 2.3108306 1.7392483
6.5509949 2.2785254 1.739534
6.7495728 2.096451 1.7397859
6.9127235 2.0994167 1.7386634
7.0916367 2.1046779 1.7374144
7.2589483 2.1062958 1.7362738
7.4263754 2.1068323 1.7351408
7.6095886 2.1094699 1.7338825
7.8246689 2.1153836 1.7323806
8.0199242 2.1178205 1.731041
8.2545805 2.1265688 1.7293808
8.4776192 2.1315508 1.7278301
8.7086744 2.1365373 1.7262239
8.9359474 2.1392994 1.724661
25.247253 -15.454807 1.7035125
26.034748 -16.274097 1.7013719
26.622478 -16.737104 1.6993147
26.559805 -16.829952 1.6999593
24.962067 -16.028919 1.7069242
24.636124 -15.96036 1.7086235
24.428017 -15.959022 1.7098308
24.35144 -16.041027 1.7105129
-9.8316269 15.283261 1.6081318
-9.7758904 15.296255 1.6081661
-9.6948528 15.254649 1.6089575
-9.6376095 15.263524 1.6090454
-9.5777292 15.273402 1.609129
-9.5271225 15.29642 1.609018
-9.4518805 15.264532 1.6096656
-9.3953972 15.281007 1.6096529
-9.3350868 15.281458 1.6098493
-9.2796593 15.292671 1.6098957
-9.2004032 15.248627 1.6107023
-9.1624928 15.299801 1.6101949
-9.1086798 15.314075 1.6101948
-9.0335484 15.285051 1.6107988
-8.9675217 15.269344 1.6112072
-8.9505253 15.371665 1.6099945
-8.9389868 15.488843 1.608579
-8.9748182 15.724731 1.6055393
-8.954011 15.823691 1.6043772
-8.9608641 16.001848 1.6021434
-8.6764078 15.43477 1.6100798
-8.6165638 15.432434 1.6102951
-8.5598717 15.445836 1.6103038
-8.4944286 15.428114 1.6107255
-8.432004 15.417604 1.6110471
-8.3781204 15.429329 1.6110648
-8.3104286 15.411857 1.611487
-8.2690067 15.456957 1.6110487
-8.1932497 15.407953 1.6118861
-8.1624832 15.482845 1.611042
-8.0830698 15.422019 1.6120359
-8.0452032 15.486307 1.611343
-7.9768291 15.455126 1.6119318
-7.9191308 15.453919 1.6121135
-7.8576264 15.441144 1.6124499
-7.799962 15.447989 1.6125286
-7.7374272 15.43095 1.6129191
-7.6863098 15.447863 1.6128508
-7.6363797 15.468409 1.6127325
-7.5863628 15.488794 1.6126153
-7.5299354 15.498438 1.6126498
-7.4129715 15.484881 1.6131392
-7.3161392 15.535522 1.6127626
-7.1945691 15.513487 1.6133623
-4.61619 11.674431 1.6680264
-4.5768881 11.677069 1.6680694
-4.5428014 11.711144 1.6677002
-4.4938192 11.654311 1.6685188
-4.4613466 11.712166 1.6678416
-4.4164591 11.678709 1.6683525
-4.3808041 11.704399 1.6680902
-4.3403053 11.698334 1.6682417
-4.298728 11.68421 1.6684973
-4.2630491 11.725671 1.6680312
-4.2215157 11.711269 1.6682887
-4.1779642 11.680866 1.6687536
-4.1361861 11.662203 1.6690645
-4.1046815 11.722736 1.668344
-4.0644016 11.715715 1.668502
-4.0240693 11.724686 1.6684545
-3.9778051 11.665746 1.6692852
-3.9455423 11.725846 1.6685684
-3.9067333 11.730205 1.6685752
-3.8649287 11.706594 1.668944
-3.8208485 11.679072 1.6693658
-3.781002 11.671076 1.6695299
-3.7419889 11.67091 1.6695918
-3.7022495 11.662647 1.6697578
-3.6623378 11.674347 1.6696674
-3.5820689 11.645187 1.6701584
-3.544488 11.660301 1.6700184
-3.5086608 11.699221 1.6695701
-3.4670272 11.690312 1.6697422
-3.426105 11.661166 1.6701722
-3.3516982 11.710218 1.6696429
-3.3094831 11.688776 1.6699735
-3.2696724 11.671058 1.6702523
-3.2291434 11.637229 1.670738
-3.1924236 11.675166 1.6702971
-3.1543496 11.689011 1.6701664
-3.1137686 11.646792 1.6707575
-3.0755503 11.656384 1.67068
-3.0349517 11.657931 1.6707079
-2.9974294 11.691252 1.6703235
-2.9576762 11.656484 1.6708149
-2.918469 11.633578 1.6711527
-2.8797002 11.622535 1.6713369
-2.8398421 11.655392 1.6709579
-2.8012075 11.652083 1.6710411
-2.4904249 11.68099 1.67097
-2.0235896 11.65075 1.6717165
-1.9828012 11.65262 1.6717185
-1.9442455 11.650471 1.6717699
-1.9074068 11.620247 1.6721797
-1.8646269 11.653639 1.6717761
-1.8252592 11.66307 1.671677
-1.7863925 11.664388 1.671681
-1.5011193 10.305899 1.6892138
-1.4648182 10.322034 1.6890181
-1.4302274 10.322148 1.6890264
-1.4401999 9.9448004 1.6938541
-1.4210416 9.8135958 1.6955379
-1.3880969 9.8135624 1.6955457
-0.45667553 10.408387 1.6879297
-0.43217182 10.354223 1.6886119
-0.40380383 10.319563 1.6890442
-0.36627555 10.327816 1.6889279
-0.2496233 10.359143 1.6884898
-0.17380905 10.374395 1.6882665
-0.13304377 10.385271 1.6881113
-0.44705868 8.8151627 1.7081515
-0.42083502 8.7962952 1.7083778
-0.3882699 8.7963476 1.7083609
-0.36019206 8.7850523 1.7084893
-0.32308984 8.8085012 1.7081726
6.6436214 3.7586377 1.7442878
6.6268768 3.7144427 1.7447671
6.6092978 3.6720235 1.7452332
6.5989895 3.632674 1.7456377
6.5586863 3.5818708 1.7462826
7.3859406 3.8265002 1.7402741
6.5825233 3.3822639 1.7479684
6.594183 3.350147 1.7482014
6.5750217 3.3088329 1.7486584
6.5519171 3.2663534 1.7491435
6.5512838 3.2319825 1.7494514
6.5543051 3.1989651 1.7497298
6.5723448 3.1711404 1.7498916
6.5605335 3.1313751 1.7502974
6.5491562 3.026279 1.7512735
6.5438328 2.9909577 1.7516074
6.5421877 2.9569197 1.7519121
6.5294781 2.9177141 1.7523133
6.5466509 2.8897736 1.752475
6.5866699 2.8688314 1.7524676
6.5344744 2.7515867 1.7537264
6.6061192 2.7065082 1.7537732
7.284709 2.0617652 1.7558783
7.4835138 2.0677805 1.7548622
7.6903114 2.074059 1.7538043
7.8894062 2.0774548 1.7528065
8.1004219 2.0818074 1.7517422
8.3430252 2.0907135 1.7504866
8.5740023 2.0958447 1.7493172
8.7815189 2.0951841 1.7483079
9.3269243 2.1125133 1.7455009
14.492611 -2.9860117 1.7544662
14.5219 -3.0497835 1.754697
14.436846 -3.0929039 1.7553651
14.508429 -3.1678016 1.7554518
14.510435 -3.2858326 1.7561264
25.286135 -14.322409 1.759886
25.256157 -14.424047 1.7604408
26.239809 -15.423088 1.7603447
25.626083 -15.221516 1.7621449
27.335299 -16.53134 1.7601831
25.211708 -15.477893 1.7649467
26.865604 -16.527849 1.7621585
26.921942 -16.688555 1.7625622
26.693182 -16.694407 1.7635489
26.848141 -17.042801 1.764274
26.746473 -17.11418 1.7649791
-8.9778137 15.525206 1.6401758
-9.0110655 15.76223 1.6375761
-8.9752808 15.824175 1.6370056
-8.9895544 16.012363 1.6349699
-8.7189732 15.48288 1.6412596
-8.6501942 15.458347 1.6416868
-8.5861721 15.453222 1.6418953
-8.5235271 15.443069 1.6421533
-8.4581757 15.425195 1.6424993
-8.3972216 15.418291 1.6427171
-8.337883 15.423395 1.6428024
-8.2798843 15.423529 1.6429367
-8.2287893 15.442242 1.642856
-8.176281 15.45702 1.6428198
-8.122386 15.467854 1.6428282
-8.0684528 15.486991 1.6427472
-8.0092354 15.482347 1.6429317
-7.9488091 15.473696 1.6431612
-7.887207 15.461028 1.6434355
-7.8231773 15.440548 1.6437982
-7.7655306 15.447264 1.6438547
-7.715621 15.468066 1.6437423
-7.6631446 15.481103 1.643718
-7.6130915 15.501575 1.6436081
-7.4339256 15.118022 1.6481128
-7.3751969 15.11569 1.6482649
-7.3310838 15.150496 1.6479861
-7.2641912 15.484748 1.6445369
-7.1980772 15.45025 1.6450465
-7.1547966 15.492237 1.6446851
-7.1358075 15.618615 1.6433648
-7.1215305 15.764263 1.6418265
-7.0752749 15.810698 1.6414212
-7.0325813 15.860085 1.6409762
-4.0434942 11.754831 1.6907233
-3.9975171 11.699936 1.6913869
-3.963388 11.7442 1.690953
-3.9214029 11.720794 1.6912669
-3.8392601 11.70557 1.6915462
-3.8001144 11.705597 1.6915992
-3.7602043 11.697531 1.691741
-3.721869 11.705256 1.6917078
-3.6807373 11.705076 1.6917641
-3.6012263 11.687995 1.6920539
-3.5631948 11.699186 1.6919805
-3.5285335 11.754115 1.6914253
-3.486052 11.709227 1.6919682
-3.4453104 11.684134 1.6922926
-3.3687744 11.733442 1.691848
-3.3279912 11.70395 1.6922188
-3.286943 11.66633 1.6926781
-3.2485592 11.672499 1.6926558
-3.2099419 11.714596 1.6922412
-3.1711745 11.716515 1.6922647
-3.1306334 11.678346 1.6927273
-3.0916576 11.67201 1.6928401
-3.0536432 11.689525 1.692691
-3.015512 11.706914 1.6925428
-2.9739931 11.684265 1.6928349
-2.9346621 11.661413 1.6931264
-2.8960783 11.662419 1.693156
-2.8582451 11.699288 1.6927928
-2.8174987 11.700077 1.6928259
-2.5057614 11.697406 1.693156
-2.4670548 11.69699 1.6931956
-2.0376437 11.679749 1.6937379
-1.9965487 11.685662 1.6937039
-1.9578896 11.683558 1.693755
-1.9201815 11.665355 1.6939807
-1.8793077 11.666862 1.6939931
-1.8391191 11.688313 1.6937866
-1.8004465 11.685687 1.6938415
-1.7623758 11.674953 1.6939838
-1.7249702 11.65612 1.6942136
-1.6854529 11.665076 1.694141
-1.6428961 11.709773 1.69368
-1.6038094 11.710481 1.6936961
-1.5662458 11.671038 1.6941487
-1.5276376 11.667506 1.6942097
-1.4867306 11.687734 1.6940124
-1.4448938 11.71578 1.6937299
-1.4106486 11.66808 1.6942685
-1.5123179 10.34756 1.7086065
-1.476293 10.34366 1.7086675
-1.4420819 10.339836 1.7087264
-1.4510415 9.9664364 1.7127899
-1.4314427 9.8513384 1.714053
-1.3983792 9.8513384 1.7140683
-0.47933102 10.368385 1.7087195
-0.43930244 10.388659 1.708505
-0.41161847 10.350102 1.7089261
-0.3714695 10.370113 1.7087135
-0.25889897 10.382009 1.7085936
-0.18114567 10.405119 1.7083471
6.6256065 3.8033412 1.7631224
6.5750532 3.7471652 1.7637354
6.6059027 3.724128 1.7638435
6.5778627 3.6756897 1.764328
6.6048031 3.6510482 1.7644596
6.6109161 3.5129223 1.7655959
6.6155367 3.4779112 1.7658741
6.6269312 3.4472907 1.7660964
6.60818 3.4056268 1.7664949
6.5588598 3.3187261 1.7673533
6.5885744 3.2949891 1.7674651
6.5546417 3.2469468 1.7679574
6.5426016 3.2086542 1.7683067
6.5720167 3.1847813 1.7684193
6.5672922 3.1491585 1.768725
6.5586433 3.1123221 1.7690514
7.7147589 2.0951791 1.7737358
7.9099455 2.0980079 1.7731305
8.1406059 2.1064057 1.7723759
8.3753662 2.1140378 1.7716146
8.5709696 2.1128037 1.7710377
8.8457422 2.1227016 1.770138
9.0770435 2.1249783 1.7694263
9.3715096 2.1368489 1.7684513
9.6701241 2.1474698 1.7674729
14.501184 -2.9608257 1.7876289
14.451801 -3.0105474 1.7880859
14.460775 -3.0736649 1.7884501
14.497604 -3.1389945 1.7887435
14.531227 -3.262949 1.7894065
26.556604 -14.188408 1.8160764
25.324219 -14.405797 1.8204395
25.332966 -14.52792 1.8210342
27.353327 -16.482225 1.8255914
-8.1415691 15.448577 1.6744471
-8.0890598 15.463058 1.6744052
-8.0298481 15.466985 1.6744678
-7.9208155 15.483664 1.6744978
-7.8823972 15.539057 1.674068
-7.7938333 15.454983 1.6749587
-7.74894 15.491063 1.6747103
-7.7001271 15.515612 1.6745702
-7.6413231 15.509573 1.6747179
-7.4382834 15.053944 1.6790959
-7.3906384 15.085947 1.6788865
-7.3466535 15.120794 1.6786456
-7.3072333 15.170796 1.6782624
-7.8065534 16.979902 1.6613661
-7.286664 15.465747 1.6756668
-7.2361736 15.493471 1.6754981
-7.1735287 15.470359 1.6758009
-7.136848 15.535318 1.6752782
-7.1463184 15.761626 1.6732455
-7.0733066 15.703483 1.6738755
-7.0450935 15.802908 1.6730313
-3.3886795 11.736373 1.7143248
-3.3470483 11.727036 1.7144539
-3.3053887 11.681498 1.7149085
-3.2662883 11.675745 1.7150021
-3.2284942 11.69383 1.7148795
-3.1885536 11.71189 1.7147591
-3.1490657 11.697755 1.7149277
-3.1093314 11.675494 1.7151693
-3.0711725 11.689071 1.7150867
-3.0332117 11.710516 1.7149327
-2.9940722 11.699856 1.7150685
-2.9525051 11.673131 1.7153511
-2.913981 11.678195 1.7153443
-2.8757939 11.699128 1.7151941
-2.8373115 11.711935 1.715117
-2.4844182 11.713416 1.7154413
-2.4460633 11.684932 1.7157331
-2.0159039 11.690896 1.7160579
-1.9767874 11.696842 1.7160372
-1.9374379 11.670595 1.716306
-1.8995633 11.656317 1.7164656
-1.8181133 11.715188 1.7160022
-1.781342 11.684564 1.7163072
-1.7441759 11.6618 1.7165415
-1.7026277 11.670666 1.7164946
-1.6604437 11.711439 1.7161609
-1.6217015 11.70822 1.7162198
-1.585071 11.680966 1.716493
-1.5467945 11.673512 1.7165892
-1.5081731 11.669916 1.7166506
-1.4648036 11.693857 1.7164677
-1.429352 11.658154 1.716815
-1.5228096 10.397133 1.7280823
-1.4948865 10.333816 1.7286717
-1.4553561 10.361654 1.7284499
-0.74394345 11.734032 1.7165973
-0.70641792 11.719877 1.7167474
-0.67552459 11.666145 1.7172483
-0.63225687 11.687268 1.7170849
-0.59019423 11.688168 1.7171018
-0.51573086 11.658756 1.717409
-0.48705363 10.419168 1.7285352
-0.45993114 10.376822 1.7289288
-0.42712283 10.353594 1.7291538
-0.38869047 10.365846 1.7290637
-0.27713871 10.382235 1.7289726
-0.20126367 10.389478 1.7289442
6.5755577 3.7991276 1.7823653
6.5917253 3.7701454 1.7825724
6.5892467 3.7336278 1.7828557
6.6163511 3.709023 1.7830179
6.6024723 3.6681123 1.7833459
6.5995989 3.6317031 1.7836281
7.3947258 3.8265386 1.7813358
6.6060314 3.4921098 1.7846904
8.2661924 2.1103673 1.7932348
8.5206976 2.1208696 1.7928758
8.7163868 2.1188142 1.7926733
8.9948397 2.1304605 1.7922789
9.2616711 2.1381927 1.7919255
9.5365639 2.1455412 1.7915658
9.8116322 2.1510947 1.7912185
10.38312 2.2021599 1.7902098
14.673189 -2.904897 1.8204232
14.537245 -2.9403782 1.8208075
14.476105 -2.9881947 1.8211886
14.43058 -3.0384703 1.821568
14.400654 -3.091362 1.8219469
14.405394 -3.153666 1.8223481
14.564569 -3.3014562 1.8231342
26.598484 -14.1479 1.8780916
-8.3385944 17.175238 1.6934956
-7.8541527 17.028328 1.6950198
-7.325202 15.504472 1.7063264
-7.2680883 15.500863 1.706409
-7.2201619 15.527722 1.7062668
-7.166481 15.535243 1.7062671
-7.1579733 15.708557 1.7050498
-7.1015425 15.708162 1.7051088
-7.0886912 15.86153 1.7040366
-2.5030441 11.709783 1.7378893
-2.4647584 11.673362 1.7381834
-2.0336542 11.707987 1.7383447
-1.9955548 11.694022 1.7384794
-1.957312 11.683927 1.7385867
-1.9188974 11.677699 1.7386668
-1.8797591 11.68332 1.7386637
-1.8390808 11.680695 1.7387204
-1.8004346 11.678067 1.7387753
-1.7620938 11.671324 1.7388588
-1.7231747 11.67243 1.7388874
-1.6812568 11.685204 1.7388362
-1.6406127 11.705972 1.7387271
-1.6056758 11.658852 1.7390933
-1.5663928 11.663419 1.7390976
-1.4857759 11.692061 1.7389699
-1.4498768 11.660401 1.7392275
-0.76193953 11.741117 1.7392931
-0.72820079 11.703328 1.7395916
-0.69013584 11.693069 1.7396992
-0.64748096 11.7103 1.7396165
-0.60941935 11.69978 1.7397259
-0.57210088 11.685196 1.7398634
-0.53281927 11.67013 1.7400061
-0.48849678 11.694654 1.7398732
-0.44835305 11.695413 1.7399046
-0.40892911 11.692104 1.7399641
-0.37402916 11.665094 1.7401873
-0.33391118 11.665462 1.7402214
-0.51073241 10.387413 1.7491046
-0.48285174 10.349051 1.7494016
-0.45355535 10.318443 1.749645
-0.40943646 10.358174 1.749404
-0.042250156 11.690593 1.7403097
-0.00096583366 11.69372 1.7403251
-0.24862146 10.425155 1.7490765
-0.21325302 10.421158 1.7491369
7.3954897 3.8471754 1.8017433
8.7402115 2.1440713 1.814634
8.9950495 2.1518035 1.8147782
9.250062 2.1578689 1.8149341
9.5485706 2.1699033 1.8150824
9.8358383 2.1757586 1.8152647
10.33983 2.2185676 1.815359
-8.4035358 17.267601 1.7276967
-8.346323 17.286715 1.7276189
-1.9758394 11.689094 1.7609572
-1.9376326 11.678934 1.7610497
-1.8601074 11.678197 1.7611353
-1.8209281 11.683621 1.7611489
-1.7793845 11.692759 1.7611462
-1.7026565 11.679006 1.7613
-1.6617517 11.703834 1.7612162
-1.6233678 11.696632 1.7612953
-1.5867809 11.669384 1.7614763
-1.5067922 11.670097 1.7615612
-1.4670154 11.678311 1.7615631
-1.4295926 11.662514 1.7616867
-0.74271357 11.746302 1.7620596
-0.70900679 11.708456 1.762297
-0.66823745 11.701741 1.762382
-0.62282872 11.734665 1.7622676
-0.5894804 11.696478 1.7625071
-0.54661274 11.71334 1.7624731
-0.51000404 11.694619 1.7626162
-0.46843052 11.70332 1.7626234
-0.42547274 11.70756 1.7626559
-0.38525343 11.708105 1.7627041
-0.35033464 11.681022 1.7628894
-0.30937672 11.685232 1.7629201
-0.50346375 10.332985 1.769694
-0.46277714 10.357265 1.7696207
-0.42770028 10.353993 1.7696835
-0.064423323 11.679214 1.7632707
-0.31633282 10.362594 1.7697855
0.012799263 11.662063 1.7634624
0.053153753 11.661095 1.7635213
0.1062212 11.714526 1.7633142
0.14404392 11.701557 1.7634327
0.3937602 11.705873 1.7637514
0.43853068 11.719066 1.7637447
0.47831368 11.71275 1.7638329
0.51701832 11.694166 1.7639841
0.5577879 11.691446 1.7640555
0.60495019 11.711723 1.764016
0.65334964 11.735668 1.7639594
0.68564081 11.701679 1.7641828
0.72966862 11.701636 1.7642457
9.5876417 2.1554441 1.8389891
9.898222 2.1669145 1.8397419
10.351029 2.2001667 1.8407305
-1.4824765 11.712064 1.7839108
-0.76759827 11.709841 1.7849265
-0.72695184 11.715507 1.7849699
-0.69015253 11.697352 1.7850862
-0.64478207 11.718185 1.7850879
-0.60467124 11.719482 1.7851464
-0.56521416 11.716702 1.7852176
-0.52856517 11.698037 1.7853373
-0.48568964 11.702499 1.7853911
-0.44041228 11.73078 1.7853707
-0.39567232 11.754958 1.7853634
-0.37039804 11.676841 1.785663
-0.11987615 11.719919 1.7859402
-0.043787241 11.68706 1.7861806
0.053875685 11.759484 1.7861103
0.09457016 11.758375 1.7861859
0.33738184 11.724451 1.7867383
0.37417936 11.706857 1.7868654
0.42493725 11.743356 1.7868373
0.4658103 11.740955 1.786922
0.5066793 11.730143 1.7870355
0.54651308 11.723598 1.7871331
0.60112095 11.770934 1.7870779
0.64325142 11.771777 1.787156
0.67894197 11.749365 1.7873006
0.72326493 11.757627 1.7873589
0.77653646 11.796472 1.7873317
0.81554604 11.78517 1.7874467
0.84773111 11.75072 1.7876272
0.88887763 11.74685 1.7877223
0.93903065 11.765188 1.7877605
0.97794032 11.753346 1.7878792
1.0120709 11.726094 1.7880411
1.0556364 11.72928 1.7881191
1.0964615 11.716408 1.7882466
1.1376531 11.711663 1.7883478
1.1850228 11.725799 1.7883978
1.2300324 11.732147 1.7884699
1.281426 11.757306 1.7884915
5.5084991 8.1525745 1.8141974
5.5070267 8.0974083 1.8144305
5.5266113 8.0605869 1.8146592
5.5960493 8.0755625 1.8148416
8.4202843 3.8253186 1.8475019
8.4675541 3.7983906 1.8478646
10.401826 3.3680155 1.859019
10.186013 2.2395601 1.8649654
44.255608 -20.908092 2.1976671
44.061932 -21.007521 2.1976717
-0.74895775 11.690728 1.8076953
-0.7096473 11.688435 1.8077707
-0.67032647 11.686007 1.807847
-0.62564409 11.714996 1.8078903
-0.58757567 11.704403 1.8079772
-0.547472 11.705505 1.8080523
-0.51087999 11.686785 1.8081492
-0.47078323 11.68762 1.8082262
-0.10205913 11.699787 1.8089609
-0.056208849 11.714403 1.8090376
0.064406395 11.707894 1.8093085
0.34865189 11.688637 1.8099791
0.39528155 11.709745 1.8100563
0.44209003 11.730671 1.8101349
0.47781444 11.70888 1.8102522
0.51649833 11.690296 1.8103726
0.55621099 11.683717 1.810478
0.60971308 11.727139 1.8105416
0.65279722 11.731801 1.8106396
0.69145656 11.712637 1.810764
0.73679876 11.72469 1.8108578
0.79227352 11.771151 1.8109246
0.83119798 11.759799 1.8110399
0.86325049 11.725309 1.8111744
0.90893888 11.736705 1.8112731
0.95678639 11.747301 1.8113793
0.99563074 11.735403 1.8114983
1.0332508 11.719556 1.8116211
1.0708003 11.70359 1.8117446
1.1176167 11.709718 1.8118584
1.161258 11.712512 1.8119699
1.2012279 11.703738 1.8120906
1.2424409 11.698625 1.8122097
1.2811229 11.685781 1.8123351
1.351753 11.76755 1.8123959
1.38937 11.750556 1.8125266
1.434752 11.75613 1.8126428
1.4788918 11.757754 1.8127629
1.5304542 11.773582 1.8128811
1.5653548 11.74848 1.8130206
1.6096272 11.749615 1.8131441
1.655314 11.754348 1.8132664
1.6914234 11.732622 1.813406
1.7308679 11.713778 1.8135512
1.7794313 11.72553 1.8136724
1.8437304 11.778225 1.8137716
1.8726597 11.73724 1.8139257
1.9186859 11.740955 1.8140554
1.9851537 11.79666 1.8141582
2.0218086 11.769379 1.8143144
5.4834824 8.7158003 1.8345068
5.4985676 8.6743202 1.8346958
5.5217009 8.6415682 1.8348993
5.5241632 8.5841322 1.8350749
5.5248404 8.5282049 1.8352383
5.4974785 8.4435682 1.83535
5.5058527 8.3965282 1.8355265
5.5279722 8.3638401 1.8357285
5.5289793 8.3068552 1.8358996
5.5479527 8.2712803 1.8360963
5.513135 8.181839 1.8361894
5.5259733 8.140729 1.8363738
5.5102043 8.071475 1.836502
5.5425425 8.050107 1.8367249
5.606288 8.059371 1.8370118
5.6615791 8.0599356 1.8372837
5.7601461 8.101882 1.837646
5.792655 8.079607 1.8378754
5.8351974 8.0640144 1.8381351
5.9373865 8.1073952 1.8385133
6.0107908 8.1228085 1.8388339
6.034667 8.0914392 1.8390508
6.0848389 8.0844688 1.8393252
6.1747208 8.1109447 1.8396968
6.2280569 8.1060486 1.8399823
6.2696047 8.0901346 1.8402432
6.3438244 8.1034985 1.8405788
9.9037733 3.7569623 1.8795563
10.035024 3.7504597 1.8804183
10.097232 3.7230258 1.8809571
10.344654 3.7019672 1.882633
10.349068 3.656827 1.8829042
10.368741 3.615962 1.8832496
10.404346 3.5769422 1.883687
10.392871 3.5275171 1.8838834
10.392585 3.4351053 1.8843873
10.384452 3.3869591 1.8846003
10.414903 3.3487821 1.8850045
44.868874 -19.954531 2.2912426
44.577766 -20.016487 2.2900317
44.021606 -20.146387 2.2878323
43.888458 -20.272112 2.2881722
0.0019307137 11.693341 1.8321475
0.30021882 11.725558 1.8329582
0.33997893 11.719714 1.8330663
0.38270307 11.725362 1.8331879
0.42750597 11.738599 1.8333192
0.46225405 11.712982 1.833409
0.50511408 11.718183 1.8335338
0.55112815 11.726537 1.8336698
0.60469961 11.769995 1.8338407
0.63400078 11.724574 1.833912
0.67601871 11.725298 1.8340368
0.72997928 11.759914 1.8342092
0.77219796 11.760298 1.8343366
0.8088429 11.741332 1.8344424
0.85447788 11.752938 1.8345855
0.90022135 11.764372 1.8347301
0.94260526 11.764144 1.834862
0.96978498 11.714048 1.8349335
1.0144479 11.721209 1.8350765
1.0579944 11.724385 1.8352159
1.101223 11.719131 1.8353533
1.1509824 11.741029 1.8355193
1.1935189 11.739898 1.8356576
1.2373309 11.742415 1.8358018
1.2824686 11.748564 1.8359523
1.3284616 11.750065 1.8361056
1.3814638 11.778597 1.8362889
1.4243135 11.776638 1.8364332
1.4671879 11.774526 1.8365785
1.5100994 11.772255 1.8367249
1.5423374 11.739673 1.8368304
1.5913019 11.747691 1.8370016
1.626061 11.722404 1.8371191
1.67307 11.730824 1.8372856
1.7160182 11.727807 1.8374373
1.7673941 11.747115 1.8376229
1.8125205 11.742982 1.8377842
1.8627501 11.758144 1.8379673
1.9088197 11.761903 1.8381351
1.9549584 11.765488 1.8383042
1.9997134 11.765169 1.8384689
2.0445108 11.764685 1.8386348
2.0893612 11.764032 1.838802
2.131248 11.755797 1.8389586
2.1751885 11.746574 1.839124
2.2155533 11.734331 1.8392768
2.2604966 11.73303 1.8394485
2.3039393 11.727871 1.8396153
2.3567648 11.744651 1.8398198
2.412909 11.768559 1.8400381
2.4518147 11.751832 1.8401905
2.5066466 11.771646 1.8404058
2.5556693 11.772013 1.8405999
2.6027012 11.773092 1.8407872
2.6399922 11.752084 1.8409376
2.6821375 11.741896 1.841108
2.7242785 11.731551 1.8412794
5.4607353 9.449338 1.8562126
5.4945459 9.4255486 1.856439
5.4538612 9.3126335 1.8563396
5.445116 9.2406683 1.856378
5.4465494 9.1808748 1.856462
5.5007315 9.1810503 1.8567824
5.4767065 9.090003 1.856758
5.4612732 9.0125456 1.8567679
5.4749241 8.967926 1.8569089
5.4802952 8.9144373 1.8570132
5.5016127 8.8787117 1.85719
5.4809113 8.7944899 1.8571817
5.4745474 8.7295113 1.8572341
5.4869652 8.6851215 1.8573723
5.5046663 8.6465673 1.8575352
5.5056849 8.5905743 1.8576227
5.5064268 8.534667 1.8577093
5.4874868 8.4586601 1.857706
5.4848204 8.4001226 1.8577775
5.5097494 8.3703632 1.8579766
5.5121803 8.3176699 1.8580726
5.5157785 8.2636414 1.858179
5.4951286 8.1883974 1.8581686
5.4825516 8.12187 1.8581959
5.5121899 8.0978003 1.8584203
5.5332155 8.0651941 1.8586053
5.5926456 8.0675182 1.8589758
5.6593885 8.0793276 1.8593779
5.7349243 8.0991297 1.859823
5.767417 8.0769472 1.860067
5.8201056 8.0739717 1.8604077
5.9425392 8.1367807 1.8610808
5.9824467 8.117836 1.8613695
6.0209141 8.1002235 1.8616477
6.0681524 8.0906076 1.861969
6.1771479 8.1377411 1.8625875
6.2098951 8.1139555 1.8628428
6.2603207 8.106205 1.8631843
6.3256273 8.1116209 1.8635991
6.4357471 8.1027765 1.8643349
6.5492706 8.1496887 1.8649892
6.6031733 8.1430569 1.8653563
6.7578449 8.1667204 1.8663301
6.8090115 8.1565113 1.8666893
6.8268099 8.1174135 1.8668861
6.8992662 8.1249685 1.867353
7.0085316 8.1631231 1.8680036
7.0477123 8.1414661 1.8683105
54.592651 -22.825729 2.4949057
54.55703 -23.043226 2.4967341
54.606194 -23.505548 2.5016248
0.62321854 11.640335 1.8569987
0.66822124 11.652643 1.8571825
0.71445012 11.668623 1.8573799
0.75859237 11.676741 1.8575542
0.80395484 11.68853 1.857742
0.84146738 11.673306 1.8578449
0.89705896 11.710981 1.8581276
0.93695116 11.703107 1.8582575
0.97799993 11.698921 1.8584007
1.0214429 11.70223 1.8585699
1.063735 11.701564 1.8587277
1.1012175 11.685498 1.8588364
1.1431205 11.676271 1.8589776
1.1866868 11.678968 1.8591511
1.2328219 11.6891 1.859351
1.2727363 11.680082 1.8594888
1.3146646 11.670242 1.8596343
1.3648674 11.691232 1.8598762
1.4152584 11.712014 1.8601198
1.4605665 11.717481 1.8603134
1.5013466 11.703196 1.8604507
1.5467544 11.708332 1.8606468
1.5881729 11.702004 1.8608053
1.632329 11.703051 1.8609906
1.6696429 11.685159 1.8611119
1.7138476 11.685896 1.8612995
1.7580981 11.68647 1.8614883
1.7953253 11.668171 1.8616123
1.842473 11.675909 1.8618298
1.8897266 11.683462 1.8620486
1.9356203 11.687104 1.8622555
1.9865561 11.697211 1.8624978
2.0370626 11.711629 1.8627478
2.0787635 11.703572 1.8629184
2.1370049 11.736139 1.8632388
2.1687536 11.697282 1.8633111
2.2211809 11.714633 1.8635802
2.2537518 11.683776 1.8636733
2.2970362 11.678635 1.863863
2.3419113 11.677017 1.8640676
2.3856945 11.667006 1.8642536
2.435401 11.676061 1.8645021
2.4900241 11.69591 1.8647938
2.5432243 11.711864 1.8650733
2.6035056 11.737646 1.8654048
2.6439471 11.723935 1.8655756
2.6810579 11.702798 1.8657191
2.7214079 11.688819 1.8658916
2.7717829 11.696492 1.8661503
2.8070722 11.671326 1.8662821
2.8558574 11.675014 1.8665291
2.9030085 11.674897 1.8667631
2.9571199 11.689027 1.8670561
3.0113792 11.702933 1.8673508
3.0625873 11.704819 1.8676125
3.110085 11.703897 1.8678524
3.1470003 11.681273 1.868006
3.1998887 11.69075 1.8682922
3.2441578 11.677543 1.8685008
3.2863784 11.665193 1.8687016
3.3322177 11.659819 1.868933
3.3854113 11.66849 1.869225
3.4350419 11.669838 1.8694891
3.4903188 11.681614 1.8697994
3.5496435 11.695612 1.870136
3.5789027 11.657461 1.8702387
3.6363521 11.672113 1.870569
5.470727 10.095637 1.8803302
5.4537878 10.006557 1.8801754
5.4893579 9.9828606 1.8804104
5.4741678 9.8971481 1.8802717
5.4737654 9.8301659 1.8802438
5.4679022 9.7571373 1.880177
5.4898596 9.7180176 1.8803172
5.4978771 9.6590757 1.8803549
5.4935627 9.5894136 1.8803041
5.4681034 9.4955454 1.8800988
5.4838209 9.4504919 1.8801986
5.5124083 9.4205704 1.8803947
5.5136232 9.3559551 1.8803897
5.4812222 9.2567787 1.8801391
5.477375 9.1909056 1.8801003
5.4678621 9.1191816 1.8800211
5.5406399 9.1400347 1.8805492
5.5145969 9.0505371 1.8803509
5.4869308 8.9569273 1.8801417
5.5003204 8.9122953 1.8802365
5.5216169 8.8765116 1.8803906
5.5237551 8.8201284 1.8804051
5.5201521 8.7579775 1.8803785
5.4998188 8.6784372 1.8802299
5.5119867 8.6340399 1.8803219
5.5267067 8.592555 1.8804338
5.5357103 8.5452862 1.880505
5.534874 8.4851007 1.8805051
5.5127611 8.4063473 1.8803494
5.5153551 8.3535957 1.8803768
5.526104 8.3094788 1.8804655
5.5253944 8.2540092 1.8804709
5.5469885 8.2213087 1.8806418
5.5217266 8.1391153 1.8804692
5.5031214 8.0670528 1.8803461
5.5496922 8.059741 1.8807046
5.5505457 8.0074615 1.8807272
5.6056557 8.0082207 1.8811512
5.6982841 8.0448027 1.8818535
5.7464352 8.035121 1.8822298
5.8048143 8.0376959 1.8826821
5.8574934 8.0344696 1.8830936
5.9903717 8.1034193 1.8841007
5.987854 8.0475702 1.884107
6.0584173 8.0597839 1.884655
6.0702887 8.0174446 1.8847702
6.2148256 8.0965681 1.8858688
6.2105246 8.0419025 1.8858652
6.3126936 8.0780439 1.886655
6.3333845 8.0430679 1.8868407
6.4286346 8.0745287 1.8875809
6.4312963 8.0233097 1.8876355
6.5779743 8.0988636 1.8887608
6.6241817 8.0825081 1.8891437
6.6599112 8.0596972 1.8894483
6.7289362 8.0654411 1.8900018
6.8528357 8.1175909 1.8909656
6.8399734 8.0525036 1.8909128
6.9307461 8.0752716 1.8916333
7.0538454 8.1215229 1.8925992
7.0498829 8.0638494 1.8926167
7.1289015 8.0750742 1.8932551
7.2668447 8.1340818 1.8943355
7.2626715 8.0760031 1.8943557
7.3514767 8.0935612 1.8950727
7.474802 8.1381807 1.8960501
7.4968033 8.09793 1.8962736
7.5955935 8.1215296 1.8970714
7.6915102 8.1420832 1.8978497
7.7183609 8.1078739 1.8981115
7.8303852 8.1398306 1.8990148
7.8730631 8.1173782 1.8993988
7.9220552 8.0995979 1.899832
24.008249 -2.3974948 2.1144357
24.086658 -2.5880034 2.1167305
23.990288 -2.6676393 2.1163597
23.977224 -2.7554307 2.1169157
23.955915 -2.8422935 2.1173823
23.950224 -2.930829 2.118026
23.904505 -3.0147877 2.1182232
23.818792 -3.0937989 2.1179714
23.808292 -3.1814227 2.1185665
1.2722933 11.730712 1.8832657
1.3187199 11.74052 1.8835143
1.3626783 11.742572 1.8837233
1.4054017 11.740675 1.883913
1.4533916 11.753746 1.8841859
1.50284 11.770398 1.8844808
1.5404215 11.752919 1.8845918
1.5867167 11.753416 1.8848138
1.628304 11.746952 1.8849885
1.6685152 11.736582 1.8851438
1.7087102 11.726074 1.8852998
1.7523208 11.718416 1.8854848
1.799531 11.726336 1.8857472
1.8468475 11.73407 1.8860109
1.8928213 11.737887 1.886255
1.9403238 11.745255 1.8865213
1.9841137 11.736744 1.8867124
2.0361848 11.754901 1.8870448
2.0854506 11.765422 1.8873365
2.1258507 11.753487 1.8875027
2.1727962 11.751691 1.8877411
2.2131705 11.73946 1.8879092
2.2535224 11.727088 1.8880783
2.2984834 11.725642 1.8883125
2.3341312 11.701926 1.8884193
2.3979769 11.744308 1.8889132
2.4415612 11.738647 1.8891298
2.4947395 11.754832 1.8894768
2.5416484 11.75614 1.889739
2.5886178 11.757273 1.8900027
2.6426001 11.768257 1.890341
2.6831546 11.754411 1.8905206
2.7170377 11.725867 1.8906137
2.7641559 11.726303 1.8908821
2.8150539 11.729239 1.8911824
2.8589163 11.722047 1.8914099
2.9044924 11.718311 1.8916603
2.9569788 11.72885 1.8920003
3.0147877 11.749987 1.8924084
3.0675759 11.760064 1.8927519
3.1137652 11.750949 1.8929948
3.1614442 11.749842 1.8932745
3.2038465 11.737795 1.8934886
3.2516007 11.736329 1.8937709
3.2996483 11.730072 1.8940412
3.3511329 11.735352 1.8943713
3.4045396 11.743981 1.8947253
3.4709468 11.777247 1.8952392
3.520978 11.778289 1.8955517
3.5524654 11.743726 1.8956388
3.5875335 11.716152 1.8957716
3.6394649 11.720222 1.8961104
3.8182135 11.860158 1.8976732
3.8439651 11.814216 1.8976973
3.8694882 11.768227 1.8977214
3.9297752 11.78512 1.8981611
3.9785132 11.780806 1.898464
4.0273767 11.771656 1.8987551
4.0840969 11.780859 1.8991537
4.1529107 11.810621 1.899694
4.2039633 11.808899 1.9000266
4.2570982 11.810419 1.9003841
4.306262 11.804824 1.9006963
4.3493714 11.784041 1.9009261
4.3944707 11.771197 1.9011936
5.4454823 10.592604 1.9059278
5.4439363 10.518234 1.9057592
5.4737844 10.485136 1.9059254
5.451911 10.385666 1.9055479
5.4615402 10.32739 1.9055057
5.4751406 10.270888 1.9055003
5.4866629 10.215833 1.9054831
5.4729185 10.129586 1.9052035
5.4662237 10.052883 1.9050008
5.4817848 10.004295 1.9050333
5.4988489 9.954299 1.9050772
5.4809017 9.8655663 1.9047654
5.480319 9.798624 1.9046372
5.4973068 9.7533035 1.9046941
5.5140877 9.7079735 1.9047507
5.5048323 9.6320963 1.9045399
5.4890575 9.5458269 1.9042586
5.4997597 9.494607 1.9042593
5.5180473 9.4525146 1.9043405
5.5282784 9.4013386 1.9043406
5.4908714 9.2959948 1.9038528
5.4977827 9.2420483 1.9038235
5.5044222 9.1881599 1.9037936
5.5267668 9.1522417 1.9039266
5.5249128 9.089488 1.9038137
5.5028458 9.001688 1.9034915
5.5164089 8.9569788 1.9035408
5.5351658 8.9181805 1.9036452
5.537487 8.8617105 1.9035835
5.517746 8.7818794 1.9032993
5.5057631 8.7110405 1.9030964
5.5277939 8.6739178 1.9032376
5.5454197 8.6352634 1.9033397
5.5463104 8.5792236 1.9032738
5.535841 8.5117292 1.9030946
5.5250092 8.4444027 1.902914
5.5305634 8.3944387 1.9029014
5.528924 8.3345413 1.9028143
5.5536146 8.3046522 1.9029987
5.5584745 8.2548218 1.9029845
5.556035 8.1951351 1.9028952
5.520647 8.1059875 1.9024789
5.5502405 8.0817823 1.9027195
5.5740471 8.0518723 1.9029033
5.6321354 8.055378 1.9034333
5.6860571 8.0572586 1.9039252
5.7688303 8.0809059 1.9047027
5.8012753 8.0585966 1.9049782
5.8568859 8.0581751 1.9054877
5.9649887 8.1068468 1.9065247
6.0063391 8.0920238 1.906893
6.0373697 8.0646133 1.9071572
6.0992422 8.0684471 1.9077339
6.1995525 8.1071072 1.9086964
6.2381268 8.0886145 1.9090422
6.3063307 8.0967979 1.9096857
6.3627911 8.0939159 1.910213
6.4326725 8.0998268 1.9108737
6.4713621 8.0804062 1.911226
6.5700579 8.1136875 1.9121789
6.6449871 8.1253366 1.9128954
6.6657534 8.0893459 1.9130729
6.7832651 8.1369534 1.914217
6.8404722 8.1317883 1.9147607
6.8687077 8.0987406 1.9150157
6.9412308 8.1060028 1.915715
7.062911 8.1540327 1.9169054
7.0744486 8.1090946 1.9169997
7.1566324 8.1228724 1.9177994
7.2915058 8.1794128 1.919125
7.2937098 8.1262722 1.919131
7.3763981 8.138772 1.91994
7.5090933 8.1909876 1.9212481
7.5204992 8.1448784 1.9213504
7.6099615 8.1610441 1.9222312
7.7059107 8.1816702 1.923178
7.7468996 8.1554794 1.9235792
7.8495159 8.1800938 1.9245956
7.9176102 8.177187 1.9252702
7.9636002 8.1568613 1.9257264
8.0904818 8.1951237 1.9269893
8.1334476 8.1716661 1.9274188
8.2019348 8.167263 1.9281042
8.3313847 8.2079973 1.9293977
8.3456049 8.1621284 1.9295465
8.4286671 8.1641769 1.9303825
8.5330553 8.1842175 1.9314321
8.6053371 8.1801414 1.9321641
8.7523117 8.2295132 1.9336416
8.7891998 8.1987762 1.9340249
8.8520803 8.1864357 1.9346689
24.071041 -2.3624938 2.1662533
24.062553 -2.5401745 2.167563
24.021053 -2.7145724 2.1684558
23.987947 -2.8003387 2.1687443
23.954567 -2.885915 2.1690316
23.882462 -3.0606589 2.16958
23.856188 -3.146596 2.1699669
1.9111476 12.077357 1.9123154
1.925561 11.994968 1.911943
1.9337506 11.897676 1.9114553
1.9644351 11.860154 1.9114251
2.0051012 11.848639 1.9115963
2.0618892 11.877915 1.9120847
2.0996785 11.858635 1.9122006
2.1538105 11.880054 1.9126346
2.2066259 11.897544 1.9130414
2.2586498 11.906559 1.9133998
2.3071957 11.912516 1.9137231
2.3434949 11.888757 1.9138155
2.4667249 12.071282 1.9155369
2.4632907 11.946756 1.914855
2.471209 11.856359 1.9144256
2.505631 11.82843 1.9144919
2.5559573 11.837046 1.9148515
2.5950885 11.819844 1.9150075
2.6520739 11.842703 1.9154873
2.6850843 11.806014 1.9155066
2.7538581 11.853951 1.9161959
2.8080316 11.868825 1.916622
2.8791232 11.919786 1.9173455
2.9020162 11.860665 1.917192
2.9259167 11.809734 1.9170887
2.9735222 11.809378 1.9174017
3.0263672 11.819658 1.9178053
3.0775995 11.826118 1.9181806
3.1096992 11.792795 1.918229
3.153964 11.784533 1.9184872
3.2088804 11.797615 1.9189265
3.244307 11.77109 1.9190371
3.3104253 11.800603 1.9196388
3.3512402 11.784467 1.919842
3.4084091 11.80024 1.9203178
3.4584103 11.801544 1.9206746
3.5084915 11.802643 1.9210328
3.5421319 11.767034 1.9210984
3.5604639 11.707664 1.9209422
3.5972853 11.683599 1.9210901
3.7982035 11.870815 1.9234365
3.8202009 11.817892 1.9233453
3.8324037 11.742794 1.9230797
3.8964329 11.766836 1.9236641
3.9548321 11.780108 1.9241585
4.0173168 11.800094 1.9247164
4.0543423 11.774568 1.9248747
4.1052403 11.768585 1.9252295
4.1621156 11.777435 1.9256998
4.2291737 11.803326 1.9263275
4.2702031 11.784029 1.9265527
4.3213472 11.781811 1.9269348
4.374589 11.782827 1.9273497
4.4155903 11.763023 1.9275784
4.4627247 11.753358 1.9279021
4.5327086 11.776437 1.9285518
4.5925283 11.786787 1.9290676
4.6503887 11.793466 1.929554
4.706265 11.796491 1.9300104
4.7516193 11.782328 1.9303105
4.7969656 11.767992 1.9306116
4.8530202 11.770365 1.9310728
4.9178009 11.785968 1.9316633
4.9913325 11.810024 1.9323627
5.0456185 11.808228 1.9327979
5.1021729 11.809538 1.933267
5.4534464 11.488864 1.9349127
5.5029736 11.478371 1.9352974
5.4474154 10.555651 1.9313238
5.4627485 10.503524 1.9312738
5.4312363 10.391368 1.9305859
5.4360056 10.326819 1.9303995
5.4552794 10.281209 1.9304144
5.4817791 10.245001 1.9305304
5.4625216 10.147895 1.9300154
5.4584675 10.074286 1.9297241
5.4791622 10.031918 1.9297711
5.4895658 9.9771128 1.9296819
5.4743357 9.8914194 1.9292511
5.4662685 9.8151894 1.928921
5.485899 9.7729664 1.9289659
5.4976377 9.7215176 1.9289079
5.4910908 9.6486807 1.9286089
5.4858208 9.5745783 1.9283197
5.4732838 9.4959593 1.9279488
5.5098505 9.4751635 1.9282331
5.5071125 9.4088583 1.9279988
5.4540987 9.2853737 1.9271034
5.4821196 9.2555676 1.9272828
5.4586706 9.1643057 1.9267765
5.5022163 9.1524363 1.9271652
5.5110865 9.1016378 1.9270998
5.4929409 9.021162 1.9266834
5.5039072 8.9735003 1.9266515
5.5200434 8.9317665 1.9266897
5.5239992 8.873889 1.9265627
5.5098124 8.7998962 1.9262112
5.5006838 8.7319489 1.9259291
5.5145969 8.6860752 1.9259406
5.5377712 8.653266 1.9260831
5.5415249 8.6001053 1.9259763
6.1533947 8.0920334 1.9311264
6.2332344 8.1114941 1.9320227
6.2554779 8.0751915 1.9321884
6.3296461 8.0885973 1.933015
6.3891039 8.088254 1.9336574
6.4456663 8.0849495 1.9342644
6.4723377 8.0548677 1.9344975
6.6071196 8.1196947 1.9360876
6.6489735 8.1022253 1.9365132
6.6877909 8.0819483 1.9369023
6.8266354 8.1475859 1.9385438
6.8626299 8.1240396 1.9388998
6.8985777 8.1003408 1.9392567
7.0170269 8.1461134 1.9406446
7.0851784 8.1458311 1.9414009
7.121274 8.1212997 1.9417636
7.225152 8.1526651 1.9429721
7.3076944 8.1656742 1.9439155
7.3484488 8.1411018 1.9443361
7.4343796 8.1558294 1.9453239
7.5142756 8.1650677 1.9462378
7.5630903 8.1489105 1.9467671
7.6369762 8.1523981 1.9476089
7.71556 8.1561613 1.9485064
7.7550659 8.1317215 1.9489249
7.873498 8.1684408 1.9503223
7.9162731 8.1458349 1.9507842
7.9812412 8.1400652 1.9515224
8.113142 8.1848021 1.9530894
8.143322 8.1516037 1.9534004
8.2885847 8.2047052 1.9551345
8.3412991 8.1876326 1.9557269
8.3779469 8.1584015 1.9561226
8.5255289 8.2076082 1.9578859
